610242.875000 6092536.000000 1428.000000
610242.875000 6092536.000000 1432.000000
610242.875000 6092536.000000 1436.000000
610242.875000 6092536.000000 1440.000000
610242.875000 6092536.000000 1444.000000
610242.875000 6092536.000000 1448.000000
610242.875000 6092536.000000 1452.000000
610242.875000 6092536.000000 1456.000000
610242.875000 6092536.000000 1460.000000
610242.875000 6092536.000000 1464.000000
610242.875000 6092536.000000 1468.000000
610242.875000 6092536.000000 1472.000000
610242.875000 6092536.000000 1476.000000
610242.875000 6092536.000000 1480.000000
610242.875000 6092536.000000 1484.000000
610242.875000 6092536.000000 1488.000000
610241.875000 6092572.000000 1420.000000
610241.875000 6092572.000000 1424.000000
610241.875000 6092572.000000 1428.000000
610241.875000 6092572.000000 1432.000000
610241.875000 6092572.000000 1436.000000
610241.875000 6092572.000000 1440.000000
610241.875000 6092572.000000 1444.000000
610241.875000 6092572.000000 1448.000000
610241.875000 6092572.000000 1452.000000
610241.875000 6092572.000000 1456.000000
610241.875000 6092572.000000 1460.000000
610241.875000 6092572.000000 1464.000000
610241.875000 6092572.000000 1468.000000
610241.875000 6092572.000000 1472.000000
610241.875000 6092572.000000 1476.000000
610241.875000 6092572.000000 1480.000000
610241.875000 6092572.000000 1484.000000
610241.875000 6092572.000000 1488.000000
610240.875000 6092608.500000 1420.000000
610240.875000 6092608.500000 1424.000000
610240.875000 6092608.500000 1428.000000
610240.875000 6092608.500000 1432.000000
610240.875000 6092608.500000 1436.000000
610240.875000 6092608.500000 1440.000000
610240.875000 6092608.500000 1444.000000
610240.875000 6092608.500000 1448.000000
610240.875000 6092608.500000 1452.000000
610240.875000 6092608.500000 1456.000000
610240.875000 6092608.500000 1460.000000
610240.875000 6092608.500000 1464.000000
610240.875000 6092608.500000 1468.000000
610240.875000 6092608.500000 1472.000000
610240.875000 6092608.500000 1476.000000
610240.875000 6092608.500000 1480.000000
610240.875000 6092608.500000 1484.000000
610239.875000 6092644.500000 1416.000000
610239.875000 6092644.500000 1420.000000
610239.875000 6092644.500000 1424.000000
610239.875000 6092644.500000 1428.000000
610239.875000 6092644.500000 1432.000000
610239.875000 6092644.500000 1436.000000
610239.875000 6092644.500000 1440.000000
610239.875000 6092644.500000 1444.000000
610239.875000 6092644.500000 1448.000000
610239.875000 6092644.500000 1452.000000
610239.875000 6092644.500000 1456.000000
610239.875000 6092644.500000 1460.000000
610239.875000 6092644.500000 1464.000000
610239.875000 6092644.500000 1468.000000
610239.875000 6092644.500000 1472.000000
610239.875000 6092644.500000 1476.000000
610239.875000 6092644.500000 1480.000000
610238.875000 6092680.500000 1412.000000
610238.875000 6092680.500000 1416.000000
610238.875000 6092680.500000 1420.000000
610238.875000 6092680.500000 1424.000000
610238.875000 6092680.500000 1428.000000
610238.875000 6092680.500000 1432.000000
610238.875000 6092680.500000 1436.000000
610238.875000 6092680.500000 1440.000000
610238.875000 6092680.500000 1444.000000
610238.875000 6092680.500000 1448.000000
610238.875000 6092680.500000 1452.000000
610238.875000 6092680.500000 1456.000000
610238.875000 6092680.500000 1460.000000
610238.875000 6092680.500000 1464.000000
610238.875000 6092680.500000 1468.000000
610238.875000 6092680.500000 1472.000000
610238.875000 6092680.500000 1476.000000
610238.875000 6092680.500000 1480.000000
610237.875000 6092716.500000 1408.000000
610237.875000 6092716.500000 1412.000000
610237.875000 6092716.500000 1416.000000
610237.875000 6092716.500000 1420.000000
610237.875000 6092716.500000 1424.000000
610237.875000 6092716.500000 1428.000000
610237.875000 6092716.500000 1432.000000
610237.875000 6092716.500000 1436.000000
610237.875000 6092716.500000 1440.000000
610237.875000 6092716.500000 1444.000000
610237.875000 6092716.500000 1448.000000
610237.875000 6092716.500000 1452.000000
610237.875000 6092716.500000 1456.000000
610237.875000 6092716.500000 1460.000000
610237.875000 6092716.500000 1464.000000
610237.875000 6092716.500000 1468.000000
610237.875000 6092716.500000 1472.000000
610237.875000 6092716.500000 1476.000000
610236.812500 6092752.500000 1408.000000
610236.812500 6092752.500000 1412.000000
610236.812500 6092752.500000 1416.000000
610236.812500 6092752.500000 1420.000000
610236.812500 6092752.500000 1424.000000
610236.812500 6092752.500000 1428.000000
610236.812500 6092752.500000 1432.000000
610236.812500 6092752.500000 1436.000000
610236.812500 6092752.500000 1440.000000
610236.812500 6092752.500000 1444.000000
610236.812500 6092752.500000 1448.000000
610236.812500 6092752.500000 1452.000000
610236.812500 6092752.500000 1456.000000
610236.812500 6092752.500000 1460.000000
610236.812500 6092752.500000 1464.000000
610236.812500 6092752.500000 1468.000000
610236.812500 6092752.500000 1472.000000
610236.812500 6092752.500000 1476.000000
610235.812500 6092789.000000 1400.000000
610235.812500 6092789.000000 1404.000000
610235.812500 6092789.000000 1408.000000
610235.812500 6092789.000000 1412.000000
610235.812500 6092789.000000 1416.000000
610235.812500 6092789.000000 1420.000000
610235.812500 6092789.000000 1424.000000
610235.812500 6092789.000000 1428.000000
610235.812500 6092789.000000 1432.000000
610235.812500 6092789.000000 1436.000000
610235.812500 6092789.000000 1440.000000
610235.812500 6092789.000000 1444.000000
610235.812500 6092789.000000 1448.000000
610235.812500 6092789.000000 1452.000000
610235.812500 6092789.000000 1456.000000
610235.812500 6092789.000000 1460.000000
610235.812500 6092789.000000 1464.000000
610235.812500 6092789.000000 1468.000000
610235.812500 6092789.000000 1472.000000
610234.812500 6092825.000000 1400.000000
610234.812500 6092825.000000 1404.000000
610234.812500 6092825.000000 1408.000000
610234.812500 6092825.000000 1412.000000
610234.812500 6092825.000000 1416.000000
610234.812500 6092825.000000 1420.000000
610234.812500 6092825.000000 1424.000000
610234.812500 6092825.000000 1428.000000
610234.812500 6092825.000000 1432.000000
610234.812500 6092825.000000 1436.000000
610234.812500 6092825.000000 1440.000000
610234.812500 6092825.000000 1444.000000
610234.812500 6092825.000000 1448.000000
610234.812500 6092825.000000 1452.000000
610234.812500 6092825.000000 1456.000000
610234.812500 6092825.000000 1460.000000
610234.812500 6092825.000000 1464.000000
610234.812500 6092825.000000 1468.000000
610234.812500 6092825.000000 1472.000000
610233.812500 6092861.000000 1392.000000
610233.812500 6092861.000000 1396.000000
610233.812500 6092861.000000 1400.000000
610233.812500 6092861.000000 1404.000000
610233.812500 6092861.000000 1408.000000
610233.812500 6092861.000000 1412.000000
610233.812500 6092861.000000 1416.000000
610233.812500 6092861.000000 1420.000000
610233.812500 6092861.000000 1424.000000
610233.812500 6092861.000000 1428.000000
610233.812500 6092861.000000 1432.000000
610233.812500 6092861.000000 1436.000000
610233.812500 6092861.000000 1440.000000
610233.812500 6092861.000000 1444.000000
610233.812500 6092861.000000 1448.000000
610233.812500 6092861.000000 1452.000000
610233.812500 6092861.000000 1456.000000
610233.812500 6092861.000000 1460.000000
610233.812500 6092861.000000 1464.000000
610233.812500 6092861.000000 1468.000000
610232.812500 6092897.000000 1392.000000
610232.812500 6092897.000000 1396.000000
610232.812500 6092897.000000 1400.000000
610232.812500 6092897.000000 1404.000000
610232.812500 6092897.000000 1408.000000
610232.812500 6092897.000000 1412.000000
610232.812500 6092897.000000 1416.000000
610232.812500 6092897.000000 1420.000000
610232.812500 6092897.000000 1424.000000
610232.812500 6092897.000000 1428.000000
610232.812500 6092897.000000 1432.000000
610232.812500 6092897.000000 1436.000000
610232.812500 6092897.000000 1440.000000
610232.812500 6092897.000000 1444.000000
610232.812500 6092897.000000 1448.000000
610232.812500 6092897.000000 1452.000000
610232.812500 6092897.000000 1456.000000
610232.812500 6092897.000000 1460.000000
610232.812500 6092897.000000 1464.000000
610231.812500 6092933.000000 1388.000000
610231.812500 6092933.000000 1392.000000
610231.812500 6092933.000000 1396.000000
610231.812500 6092933.000000 1400.000000
610231.812500 6092933.000000 1404.000000
610231.812500 6092933.000000 1408.000000
610231.812500 6092933.000000 1412.000000
610231.812500 6092933.000000 1416.000000
610231.812500 6092933.000000 1420.000000
610231.812500 6092933.000000 1424.000000
610231.812500 6092933.000000 1428.000000
610231.812500 6092933.000000 1432.000000
610231.812500 6092933.000000 1436.000000
610231.812500 6092933.000000 1440.000000
610231.812500 6092933.000000 1444.000000
610231.812500 6092933.000000 1448.000000
610231.812500 6092933.000000 1452.000000
610231.812500 6092933.000000 1456.000000
610231.812500 6092933.000000 1460.000000
610230.812500 6092969.500000 1388.000000
610230.812500 6092969.500000 1392.000000
610230.812500 6092969.500000 1396.000000
610230.812500 6092969.500000 1400.000000
610230.812500 6092969.500000 1404.000000
610230.812500 6092969.500000 1408.000000
610230.812500 6092969.500000 1412.000000
610230.812500 6092969.500000 1416.000000
610230.812500 6092969.500000 1420.000000
610230.812500 6092969.500000 1424.000000
610230.812500 6092969.500000 1428.000000
610230.812500 6092969.500000 1432.000000
610230.812500 6092969.500000 1436.000000
610230.812500 6092969.500000 1440.000000
610230.812500 6092969.500000 1444.000000
610230.812500 6092969.500000 1448.000000
610230.812500 6092969.500000 1452.000000
610230.812500 6092969.500000 1456.000000
610230.812500 6092969.500000 1460.000000
610229.750000 6093005.500000 1388.000000
610229.750000 6093005.500000 1392.000000
610229.750000 6093005.500000 1396.000000
610229.750000 6093005.500000 1400.000000
610229.750000 6093005.500000 1404.000000
610229.750000 6093005.500000 1408.000000
610229.750000 6093005.500000 1412.000000
610229.750000 6093005.500000 1416.000000
610229.750000 6093005.500000 1420.000000
610229.750000 6093005.500000 1424.000000
610229.750000 6093005.500000 1428.000000
610229.750000 6093005.500000 1432.000000
610229.750000 6093005.500000 1436.000000
610229.750000 6093005.500000 1440.000000
610229.750000 6093005.500000 1444.000000
610229.750000 6093005.500000 1448.000000
610229.750000 6093005.500000 1452.000000
610229.750000 6093005.500000 1456.000000
610228.750000 6093041.500000 1384.000000
610228.750000 6093041.500000 1388.000000
610228.750000 6093041.500000 1392.000000
610228.750000 6093041.500000 1396.000000
610228.750000 6093041.500000 1400.000000
610228.750000 6093041.500000 1404.000000
610228.750000 6093041.500000 1408.000000
610228.750000 6093041.500000 1412.000000
610228.750000 6093041.500000 1416.000000
610228.750000 6093041.500000 1420.000000
610228.750000 6093041.500000 1424.000000
610228.750000 6093041.500000 1428.000000
610228.750000 6093041.500000 1432.000000
610228.750000 6093041.500000 1436.000000
610228.750000 6093041.500000 1440.000000
610228.750000 6093041.500000 1444.000000
610228.750000 6093041.500000 1448.000000
610228.750000 6093041.500000 1452.000000
610228.750000 6093041.500000 1456.000000
610227.750000 6093077.500000 1384.000000
610227.750000 6093077.500000 1388.000000
610227.750000 6093077.500000 1392.000000
610227.750000 6093077.500000 1396.000000
610227.750000 6093077.500000 1400.000000
610227.750000 6093077.500000 1404.000000
610227.750000 6093077.500000 1408.000000
610227.750000 6093077.500000 1412.000000
610227.750000 6093077.500000 1416.000000
610227.750000 6093077.500000 1420.000000
610227.750000 6093077.500000 1424.000000
610227.750000 6093077.500000 1428.000000
610227.750000 6093077.500000 1432.000000
610227.750000 6093077.500000 1436.000000
610227.750000 6093077.500000 1440.000000
610227.750000 6093077.500000 1444.000000
610227.750000 6093077.500000 1448.000000
610227.750000 6093077.500000 1452.000000
610226.750000 6093113.500000 1384.000000
610226.750000 6093113.500000 1388.000000
610226.750000 6093113.500000 1392.000000
610226.750000 6093113.500000 1396.000000
610226.750000 6093113.500000 1400.000000
610226.750000 6093113.500000 1404.000000
610226.750000 6093113.500000 1408.000000
610226.750000 6093113.500000 1412.000000
610226.750000 6093113.500000 1416.000000
610226.750000 6093113.500000 1420.000000
610226.750000 6093113.500000 1424.000000
610226.750000 6093113.500000 1428.000000
610226.750000 6093113.500000 1432.000000
610226.750000 6093113.500000 1436.000000
610226.750000 6093113.500000 1440.000000
610226.750000 6093113.500000 1444.000000
610226.750000 6093113.500000 1448.000000
610225.750000 6093149.500000 1380.000000
610225.750000 6093149.500000 1384.000000
610225.750000 6093149.500000 1388.000000
610225.750000 6093149.500000 1392.000000
610225.750000 6093149.500000 1396.000000
610225.750000 6093149.500000 1400.000000
610225.750000 6093149.500000 1404.000000
610225.750000 6093149.500000 1408.000000
610225.750000 6093149.500000 1412.000000
610225.750000 6093149.500000 1416.000000
610225.750000 6093149.500000 1420.000000
610225.750000 6093149.500000 1424.000000
610225.750000 6093149.500000 1428.000000
610225.750000 6093149.500000 1432.000000
610225.750000 6093149.500000 1436.000000
610225.750000 6093149.500000 1440.000000
610225.750000 6093149.500000 1444.000000
610224.750000 6093186.000000 1380.000000
610224.750000 6093186.000000 1384.000000
610224.750000 6093186.000000 1388.000000
610224.750000 6093186.000000 1392.000000
610224.750000 6093186.000000 1396.000000
610224.750000 6093186.000000 1400.000000
610224.750000 6093186.000000 1404.000000
610224.750000 6093186.000000 1408.000000
610224.750000 6093186.000000 1412.000000
610224.750000 6093186.000000 1416.000000
610224.750000 6093186.000000 1420.000000
610224.750000 6093186.000000 1424.000000
610224.750000 6093186.000000 1428.000000
610224.750000 6093186.000000 1432.000000
610224.750000 6093186.000000 1436.000000
610224.750000 6093186.000000 1440.000000
610223.750000 6093222.000000 1380.000000
610223.750000 6093222.000000 1384.000000
610223.750000 6093222.000000 1388.000000
610223.750000 6093222.000000 1392.000000
610223.750000 6093222.000000 1396.000000
610223.750000 6093222.000000 1400.000000
610223.750000 6093222.000000 1404.000000
610223.750000 6093222.000000 1408.000000
610223.750000 6093222.000000 1412.000000
610223.750000 6093222.000000 1416.000000
610223.750000 6093222.000000 1420.000000
610223.750000 6093222.000000 1424.000000
610223.750000 6093222.000000 1428.000000
610223.750000 6093222.000000 1432.000000
610223.750000 6093222.000000 1436.000000
610222.687500 6093258.000000 1380.000000
610222.687500 6093258.000000 1384.000000
610222.687500 6093258.000000 1388.000000
610222.687500 6093258.000000 1392.000000
610222.687500 6093258.000000 1396.000000
610222.687500 6093258.000000 1400.000000
610222.687500 6093258.000000 1404.000000
610222.687500 6093258.000000 1408.000000
610222.687500 6093258.000000 1412.000000
610222.687500 6093258.000000 1416.000000
610222.687500 6093258.000000 1420.000000
610222.687500 6093258.000000 1424.000000
610222.687500 6093258.000000 1428.000000
610222.687500 6093258.000000 1432.000000
610221.687500 6093294.000000 1380.000000
610221.687500 6093294.000000 1384.000000
610221.687500 6093294.000000 1388.000000
610221.687500 6093294.000000 1392.000000
610221.687500 6093294.000000 1396.000000
610221.687500 6093294.000000 1400.000000
610221.687500 6093294.000000 1404.000000
610221.687500 6093294.000000 1408.000000
610221.687500 6093294.000000 1412.000000
610221.687500 6093294.000000 1416.000000
610221.687500 6093294.000000 1420.000000
610221.687500 6093294.000000 1424.000000
610221.687500 6093294.000000 1428.000000
610220.687500 6093330.000000 1376.000000
610220.687500 6093330.000000 1380.000000
610220.687500 6093330.000000 1384.000000
610220.687500 6093330.000000 1388.000000
610220.687500 6093330.000000 1392.000000
610220.687500 6093330.000000 1396.000000
610220.687500 6093330.000000 1400.000000
610220.687500 6093330.000000 1404.000000
610220.687500 6093330.000000 1408.000000
610220.687500 6093330.000000 1412.000000
610220.687500 6093330.000000 1416.000000
610220.687500 6093330.000000 1420.000000
610220.687500 6093330.000000 1424.000000
610220.687500 6093330.000000 1428.000000
610219.687500 6093366.500000 1376.000000
610219.687500 6093366.500000 1380.000000
610219.687500 6093366.500000 1384.000000
610219.687500 6093366.500000 1388.000000
610219.687500 6093366.500000 1392.000000
610219.687500 6093366.500000 1396.000000
610219.687500 6093366.500000 1400.000000
610219.687500 6093366.500000 1404.000000
610219.687500 6093366.500000 1408.000000
610219.687500 6093366.500000 1412.000000
610219.687500 6093366.500000 1416.000000
610219.687500 6093366.500000 1420.000000
610219.687500 6093366.500000 1424.000000
610219.687500 6093366.500000 1428.000000
610218.687500 6093402.500000 1376.000000
610218.687500 6093402.500000 1380.000000
610218.687500 6093402.500000 1384.000000
610218.687500 6093402.500000 1388.000000
610218.687500 6093402.500000 1392.000000
610218.687500 6093402.500000 1396.000000
610218.687500 6093402.500000 1400.000000
610218.687500 6093402.500000 1404.000000
610218.687500 6093402.500000 1408.000000
610218.687500 6093402.500000 1412.000000
610218.687500 6093402.500000 1416.000000
610218.687500 6093402.500000 1420.000000
610218.687500 6093402.500000 1424.000000
610217.687500 6093438.500000 1376.000000
610217.687500 6093438.500000 1380.000000
610217.687500 6093438.500000 1384.000000
610217.687500 6093438.500000 1388.000000
610217.687500 6093438.500000 1392.000000
610217.687500 6093438.500000 1396.000000
610217.687500 6093438.500000 1400.000000
610217.687500 6093438.500000 1404.000000
610217.687500 6093438.500000 1408.000000
610217.687500 6093438.500000 1412.000000
610217.687500 6093438.500000 1416.000000
610217.687500 6093438.500000 1420.000000
610217.687500 6093438.500000 1424.000000
610216.687500 6093474.500000 1376.000000
610216.687500 6093474.500000 1380.000000
610216.687500 6093474.500000 1384.000000
610216.687500 6093474.500000 1388.000000
610216.687500 6093474.500000 1392.000000
610216.687500 6093474.500000 1396.000000
610216.687500 6093474.500000 1400.000000
610216.687500 6093474.500000 1404.000000
610216.687500 6093474.500000 1408.000000
610216.687500 6093474.500000 1412.000000
610216.687500 6093474.500000 1416.000000
610216.687500 6093474.500000 1420.000000
610216.687500 6093474.500000 1424.000000
610215.625000 6093510.500000 1376.000000
610215.625000 6093510.500000 1380.000000
610215.625000 6093510.500000 1384.000000
610215.625000 6093510.500000 1388.000000
610215.625000 6093510.500000 1392.000000
610215.625000 6093510.500000 1396.000000
610215.625000 6093510.500000 1400.000000
610215.625000 6093510.500000 1404.000000
610215.625000 6093510.500000 1408.000000
610215.625000 6093510.500000 1412.000000
610215.625000 6093510.500000 1416.000000
610215.625000 6093510.500000 1420.000000
610215.625000 6093510.500000 1424.000000
610214.625000 6093547.000000 1376.000000
610214.625000 6093547.000000 1380.000000
610214.625000 6093547.000000 1384.000000
610214.625000 6093547.000000 1388.000000
610214.625000 6093547.000000 1392.000000
610214.625000 6093547.000000 1396.000000
610214.625000 6093547.000000 1400.000000
610214.625000 6093547.000000 1404.000000
610214.625000 6093547.000000 1408.000000
610214.625000 6093547.000000 1412.000000
610214.625000 6093547.000000 1416.000000
610214.625000 6093547.000000 1420.000000
610213.625000 6093583.000000 1376.000000
610213.625000 6093583.000000 1380.000000
610213.625000 6093583.000000 1384.000000
610213.625000 6093583.000000 1388.000000
610213.625000 6093583.000000 1392.000000
610213.625000 6093583.000000 1396.000000
610213.625000 6093583.000000 1400.000000
610213.625000 6093583.000000 1404.000000
610213.625000 6093583.000000 1408.000000
610213.625000 6093583.000000 1412.000000
610213.625000 6093583.000000 1416.000000
610213.625000 6093583.000000 1420.000000
610212.625000 6093619.000000 1376.000000
610212.625000 6093619.000000 1380.000000
610212.625000 6093619.000000 1384.000000
610212.625000 6093619.000000 1388.000000
610212.625000 6093619.000000 1392.000000
610212.625000 6093619.000000 1396.000000
610212.625000 6093619.000000 1400.000000
610212.625000 6093619.000000 1404.000000
610212.625000 6093619.000000 1408.000000
610212.625000 6093619.000000 1412.000000
610212.625000 6093619.000000 1416.000000
610212.625000 6093619.000000 1420.000000
610211.625000 6093655.000000 1376.000000
610211.625000 6093655.000000 1380.000000
610211.625000 6093655.000000 1384.000000
610211.625000 6093655.000000 1388.000000
610211.625000 6093655.000000 1392.000000
610211.625000 6093655.000000 1396.000000
610211.625000 6093655.000000 1400.000000
610211.625000 6093655.000000 1404.000000
610211.625000 6093655.000000 1408.000000
610211.625000 6093655.000000 1412.000000
610211.625000 6093655.000000 1416.000000
610211.625000 6093655.000000 1420.000000
610210.625000 6093691.000000 1376.000000
610210.625000 6093691.000000 1380.000000
610210.625000 6093691.000000 1384.000000
610210.625000 6093691.000000 1388.000000
610210.625000 6093691.000000 1392.000000
610210.625000 6093691.000000 1396.000000
610210.625000 6093691.000000 1400.000000
610210.625000 6093691.000000 1404.000000
610210.625000 6093691.000000 1408.000000
610210.625000 6093691.000000 1412.000000
610210.625000 6093691.000000 1416.000000
610209.625000 6093727.500000 1376.000000
610209.625000 6093727.500000 1380.000000
610209.625000 6093727.500000 1384.000000
610209.625000 6093727.500000 1388.000000
610209.625000 6093727.500000 1392.000000
610209.625000 6093727.500000 1396.000000
610209.625000 6093727.500000 1400.000000
610209.625000 6093727.500000 1404.000000
610209.625000 6093727.500000 1408.000000
610209.625000 6093727.500000 1412.000000
610209.625000 6093727.500000 1416.000000
610208.625000 6093763.500000 1376.000000
610208.625000 6093763.500000 1380.000000
610208.625000 6093763.500000 1384.000000
610208.625000 6093763.500000 1388.000000
610208.625000 6093763.500000 1392.000000
610208.625000 6093763.500000 1396.000000
610208.625000 6093763.500000 1400.000000
610208.625000 6093763.500000 1404.000000
610208.625000 6093763.500000 1408.000000
610208.625000 6093763.500000 1412.000000
610208.625000 6093763.500000 1416.000000
610207.562500 6093799.500000 1376.000000
610207.562500 6093799.500000 1380.000000
610207.562500 6093799.500000 1384.000000
610207.562500 6093799.500000 1388.000000
610207.562500 6093799.500000 1392.000000
610207.562500 6093799.500000 1396.000000
610207.562500 6093799.500000 1400.000000
610207.562500 6093799.500000 1404.000000
610207.562500 6093799.500000 1408.000000
610207.562500 6093799.500000 1412.000000
610207.562500 6093799.500000 1416.000000
610206.562500 6093835.500000 1376.000000
610206.562500 6093835.500000 1380.000000
610206.562500 6093835.500000 1384.000000
610206.562500 6093835.500000 1388.000000
610206.562500 6093835.500000 1392.000000
610206.562500 6093835.500000 1396.000000
610206.562500 6093835.500000 1400.000000
610206.562500 6093835.500000 1404.000000
610206.562500 6093835.500000 1408.000000
610206.562500 6093835.500000 1412.000000
610206.562500 6093835.500000 1416.000000
610205.562500 6093871.500000 1376.000000
610205.562500 6093871.500000 1380.000000
610205.562500 6093871.500000 1384.000000
610205.562500 6093871.500000 1388.000000
610205.562500 6093871.500000 1392.000000
610205.562500 6093871.500000 1396.000000
610205.562500 6093871.500000 1400.000000
610205.562500 6093871.500000 1404.000000
610205.562500 6093871.500000 1408.000000
610205.562500 6093871.500000 1412.000000
610205.562500 6093871.500000 1416.000000
610204.562500 6093907.500000 1376.000000
610204.562500 6093907.500000 1380.000000
610204.562500 6093907.500000 1384.000000
610204.562500 6093907.500000 1388.000000
610204.562500 6093907.500000 1392.000000
610204.562500 6093907.500000 1396.000000
610204.562500 6093907.500000 1400.000000
610204.562500 6093907.500000 1404.000000
610204.562500 6093907.500000 1408.000000
610204.562500 6093907.500000 1412.000000
610204.562500 6093907.500000 1416.000000
610203.562500 6093944.000000 1376.000000
610203.562500 6093944.000000 1380.000000
610203.562500 6093944.000000 1384.000000
610203.562500 6093944.000000 1388.000000
610203.562500 6093944.000000 1392.000000
610203.562500 6093944.000000 1396.000000
610203.562500 6093944.000000 1400.000000
610203.562500 6093944.000000 1404.000000
610203.562500 6093944.000000 1408.000000
610203.562500 6093944.000000 1412.000000
610203.562500 6093944.000000 1416.000000
610202.562500 6093980.000000 1376.000000
610202.562500 6093980.000000 1380.000000
610202.562500 6093980.000000 1384.000000
610202.562500 6093980.000000 1388.000000
610202.562500 6093980.000000 1392.000000
610202.562500 6093980.000000 1396.000000
610202.562500 6093980.000000 1400.000000
610202.562500 6093980.000000 1404.000000
610202.562500 6093980.000000 1408.000000
610202.562500 6093980.000000 1412.000000
610202.562500 6093980.000000 1416.000000
610201.562500 6094016.000000 1376.000000
610201.562500 6094016.000000 1380.000000
610201.562500 6094016.000000 1384.000000
610201.562500 6094016.000000 1388.000000
610201.562500 6094016.000000 1392.000000
610201.562500 6094016.000000 1396.000000
610201.562500 6094016.000000 1400.000000
610201.562500 6094016.000000 1404.000000
610201.562500 6094016.000000 1408.000000
610201.562500 6094016.000000 1412.000000
610201.562500 6094016.000000 1416.000000
610200.500000 6094052.000000 1376.000000
610200.500000 6094052.000000 1380.000000
610200.500000 6094052.000000 1384.000000
610200.500000 6094052.000000 1388.000000
610200.500000 6094052.000000 1392.000000
610200.500000 6094052.000000 1396.000000
610200.500000 6094052.000000 1400.000000
610200.500000 6094052.000000 1404.000000
610200.500000 6094052.000000 1408.000000
610200.500000 6094052.000000 1412.000000
610200.500000 6094052.000000 1416.000000
610199.500000 6094088.000000 1376.000000
610199.500000 6094088.000000 1380.000000
610199.500000 6094088.000000 1384.000000
610199.500000 6094088.000000 1388.000000
610199.500000 6094088.000000 1392.000000
610199.500000 6094088.000000 1396.000000
610199.500000 6094088.000000 1400.000000
610199.500000 6094088.000000 1404.000000
610199.500000 6094088.000000 1408.000000
610199.500000 6094088.000000 1412.000000
610199.500000 6094088.000000 1416.000000
610198.500000 6094124.500000 1376.000000
610198.500000 6094124.500000 1380.000000
610198.500000 6094124.500000 1384.000000
610198.500000 6094124.500000 1388.000000
610198.500000 6094124.500000 1392.000000
610198.500000 6094124.500000 1396.000000
610198.500000 6094124.500000 1400.000000
610198.500000 6094124.500000 1404.000000
610198.500000 6094124.500000 1408.000000
610198.500000 6094124.500000 1412.000000
610198.500000 6094124.500000 1416.000000
610197.500000 6094160.500000 1376.000000
610197.500000 6094160.500000 1380.000000
610197.500000 6094160.500000 1384.000000
610197.500000 6094160.500000 1388.000000
610197.500000 6094160.500000 1392.000000
610197.500000 6094160.500000 1396.000000
610197.500000 6094160.500000 1400.000000
610197.500000 6094160.500000 1404.000000
610197.500000 6094160.500000 1408.000000
610197.500000 6094160.500000 1412.000000
610197.500000 6094160.500000 1416.000000
610196.500000 6094196.500000 1376.000000
610196.500000 6094196.500000 1380.000000
610196.500000 6094196.500000 1384.000000
610196.500000 6094196.500000 1388.000000
610196.500000 6094196.500000 1392.000000
610196.500000 6094196.500000 1396.000000
610196.500000 6094196.500000 1400.000000
610196.500000 6094196.500000 1404.000000
610196.500000 6094196.500000 1408.000000
610196.500000 6094196.500000 1412.000000
610196.500000 6094196.500000 1416.000000
610195.500000 6094232.500000 1376.000000
610195.500000 6094232.500000 1380.000000
610195.500000 6094232.500000 1384.000000
610195.500000 6094232.500000 1388.000000
610195.500000 6094232.500000 1392.000000
610195.500000 6094232.500000 1396.000000
610195.500000 6094232.500000 1400.000000
610195.500000 6094232.500000 1404.000000
610195.500000 6094232.500000 1408.000000
610195.500000 6094232.500000 1412.000000
610195.500000 6094232.500000 1416.000000
610194.500000 6094268.500000 1376.000000
610194.500000 6094268.500000 1380.000000
610194.500000 6094268.500000 1384.000000
610194.500000 6094268.500000 1388.000000
610194.500000 6094268.500000 1392.000000
610194.500000 6094268.500000 1396.000000
610194.500000 6094268.500000 1400.000000
610194.500000 6094268.500000 1404.000000
610194.500000 6094268.500000 1408.000000
610194.500000 6094268.500000 1412.000000
610194.500000 6094268.500000 1416.000000
610193.437500 6094305.000000 1376.000000
610193.437500 6094305.000000 1380.000000
610193.437500 6094305.000000 1384.000000
610193.437500 6094305.000000 1388.000000
610193.437500 6094305.000000 1392.000000
610193.437500 6094305.000000 1396.000000
610193.437500 6094305.000000 1400.000000
610193.437500 6094305.000000 1404.000000
610193.437500 6094305.000000 1408.000000
610193.437500 6094305.000000 1412.000000
610193.437500 6094305.000000 1416.000000
610192.437500 6094341.000000 1376.000000
610192.437500 6094341.000000 1380.000000
610192.437500 6094341.000000 1384.000000
610192.437500 6094341.000000 1388.000000
610192.437500 6094341.000000 1392.000000
610192.437500 6094341.000000 1396.000000
610192.437500 6094341.000000 1400.000000
610192.437500 6094341.000000 1404.000000
610192.437500 6094341.000000 1408.000000
610192.437500 6094341.000000 1412.000000
610192.437500 6094341.000000 1416.000000
610191.437500 6094377.000000 1376.000000
610191.437500 6094377.000000 1380.000000
610191.437500 6094377.000000 1384.000000
610191.437500 6094377.000000 1388.000000
610191.437500 6094377.000000 1392.000000
610191.437500 6094377.000000 1396.000000
610191.437500 6094377.000000 1400.000000
610191.437500 6094377.000000 1404.000000
610191.437500 6094377.000000 1408.000000
610191.437500 6094377.000000 1412.000000
610191.437500 6094377.000000 1416.000000
610190.437500 6094413.000000 1376.000000
610190.437500 6094413.000000 1380.000000
610190.437500 6094413.000000 1384.000000
610190.437500 6094413.000000 1388.000000
610190.437500 6094413.000000 1392.000000
610190.437500 6094413.000000 1396.000000
610190.437500 6094413.000000 1400.000000
610190.437500 6094413.000000 1404.000000
610190.437500 6094413.000000 1408.000000
610190.437500 6094413.000000 1412.000000
610190.437500 6094413.000000 1416.000000
610189.437500 6094449.000000 1376.000000
610189.437500 6094449.000000 1380.000000
610189.437500 6094449.000000 1384.000000
610189.437500 6094449.000000 1388.000000
610189.437500 6094449.000000 1392.000000
610189.437500 6094449.000000 1396.000000
610189.437500 6094449.000000 1400.000000
610189.437500 6094449.000000 1404.000000
610189.437500 6094449.000000 1408.000000
610189.437500 6094449.000000 1412.000000
610189.437500 6094449.000000 1416.000000
610188.437500 6094485.500000 1376.000000
610188.437500 6094485.500000 1380.000000
610188.437500 6094485.500000 1384.000000
610188.437500 6094485.500000 1388.000000
610188.437500 6094485.500000 1392.000000
610188.437500 6094485.500000 1396.000000
610188.437500 6094485.500000 1400.000000
610188.437500 6094485.500000 1404.000000
610188.437500 6094485.500000 1408.000000
610188.437500 6094485.500000 1412.000000
610188.437500 6094485.500000 1416.000000
610187.437500 6094521.500000 1420.000000
610187.437500 6094521.500000 1376.000000
610187.437500 6094521.500000 1380.000000
610187.437500 6094521.500000 1384.000000
610187.437500 6094521.500000 1388.000000
610187.437500 6094521.500000 1392.000000
610187.437500 6094521.500000 1396.000000
610187.437500 6094521.500000 1400.000000
610187.437500 6094521.500000 1404.000000
610187.437500 6094521.500000 1408.000000
610187.437500 6094521.500000 1412.000000
610187.437500 6094521.500000 1416.000000
610186.375000 6094557.500000 1420.000000
610186.375000 6094557.500000 1376.000000
610186.375000 6094557.500000 1380.000000
610186.375000 6094557.500000 1384.000000
610186.375000 6094557.500000 1388.000000
610186.375000 6094557.500000 1392.000000
610186.375000 6094557.500000 1396.000000
610186.375000 6094557.500000 1400.000000
610186.375000 6094557.500000 1404.000000
610186.375000 6094557.500000 1408.000000
610186.375000 6094557.500000 1412.000000
610186.375000 6094557.500000 1416.000000
610185.375000 6094593.500000 1420.000000
610185.375000 6094593.500000 1376.000000
610185.375000 6094593.500000 1380.000000
610185.375000 6094593.500000 1384.000000
610185.375000 6094593.500000 1388.000000
610185.375000 6094593.500000 1392.000000
610185.375000 6094593.500000 1396.000000
610185.375000 6094593.500000 1400.000000
610185.375000 6094593.500000 1404.000000
610185.375000 6094593.500000 1408.000000
610185.375000 6094593.500000 1412.000000
610185.375000 6094593.500000 1416.000000
610184.375000 6094629.500000 1424.000000
610184.375000 6094629.500000 1420.000000
610184.375000 6094629.500000 1376.000000
610184.375000 6094629.500000 1380.000000
610184.375000 6094629.500000 1384.000000
610184.375000 6094629.500000 1388.000000
610184.375000 6094629.500000 1392.000000
610184.375000 6094629.500000 1396.000000
610184.375000 6094629.500000 1400.000000
610184.375000 6094629.500000 1404.000000
610184.375000 6094629.500000 1408.000000
610184.375000 6094629.500000 1412.000000
610184.375000 6094629.500000 1416.000000
610183.375000 6094666.000000 1424.000000
610183.375000 6094666.000000 1420.000000
610183.375000 6094666.000000 1376.000000
610183.375000 6094666.000000 1380.000000
610183.375000 6094666.000000 1384.000000
610183.375000 6094666.000000 1388.000000
610183.375000 6094666.000000 1392.000000
610183.375000 6094666.000000 1396.000000
610183.375000 6094666.000000 1400.000000
610183.375000 6094666.000000 1404.000000
610183.375000 6094666.000000 1408.000000
610183.375000 6094666.000000 1412.000000
610183.375000 6094666.000000 1416.000000
610182.375000 6094702.000000 1424.000000
610182.375000 6094702.000000 1420.000000
610182.375000 6094702.000000 1376.000000
610182.375000 6094702.000000 1380.000000
610182.375000 6094702.000000 1384.000000
610182.375000 6094702.000000 1388.000000
610182.375000 6094702.000000 1392.000000
610182.375000 6094702.000000 1396.000000
610182.375000 6094702.000000 1400.000000
610182.375000 6094702.000000 1404.000000
610182.375000 6094702.000000 1408.000000
610182.375000 6094702.000000 1412.000000
610182.375000 6094702.000000 1416.000000
610181.375000 6094738.000000 1424.000000
610181.375000 6094738.000000 1420.000000
610181.375000 6094738.000000 1376.000000
610181.375000 6094738.000000 1380.000000
610181.375000 6094738.000000 1384.000000
610181.375000 6094738.000000 1388.000000
610181.375000 6094738.000000 1392.000000
610181.375000 6094738.000000 1396.000000
610181.375000 6094738.000000 1400.000000
610181.375000 6094738.000000 1404.000000
610181.375000 6094738.000000 1408.000000
610181.375000 6094738.000000 1412.000000
610181.375000 6094738.000000 1416.000000
610180.375000 6094774.000000 1428.000000
610180.375000 6094774.000000 1424.000000
610180.375000 6094774.000000 1420.000000
610180.375000 6094774.000000 1376.000000
610180.375000 6094774.000000 1380.000000
610180.375000 6094774.000000 1384.000000
610180.375000 6094774.000000 1388.000000
610180.375000 6094774.000000 1392.000000
610180.375000 6094774.000000 1396.000000
610180.375000 6094774.000000 1400.000000
610180.375000 6094774.000000 1404.000000
610180.375000 6094774.000000 1408.000000
610180.375000 6094774.000000 1412.000000
610180.375000 6094774.000000 1416.000000
610179.312500 6094810.000000 1428.000000
610179.312500 6094810.000000 1424.000000
610179.312500 6094810.000000 1420.000000
610179.312500 6094810.000000 1376.000000
610179.312500 6094810.000000 1380.000000
610179.312500 6094810.000000 1384.000000
610179.312500 6094810.000000 1388.000000
610179.312500 6094810.000000 1392.000000
610179.312500 6094810.000000 1396.000000
610179.312500 6094810.000000 1400.000000
610179.312500 6094810.000000 1404.000000
610179.312500 6094810.000000 1408.000000
610179.312500 6094810.000000 1412.000000
610179.312500 6094810.000000 1416.000000
610178.312500 6094846.000000 1428.000000
610178.312500 6094846.000000 1424.000000
610178.312500 6094846.000000 1420.000000
610178.312500 6094846.000000 1376.000000
610178.312500 6094846.000000 1380.000000
610178.312500 6094846.000000 1384.000000
610178.312500 6094846.000000 1388.000000
610178.312500 6094846.000000 1392.000000
610178.312500 6094846.000000 1396.000000
610178.312500 6094846.000000 1400.000000
610178.312500 6094846.000000 1404.000000
610178.312500 6094846.000000 1408.000000
610178.312500 6094846.000000 1412.000000
610178.312500 6094846.000000 1416.000000
610177.312500 6094882.500000 1432.000000
610177.312500 6094882.500000 1428.000000
610177.312500 6094882.500000 1424.000000
610177.312500 6094882.500000 1420.000000
610177.312500 6094882.500000 1376.000000
610177.312500 6094882.500000 1380.000000
610177.312500 6094882.500000 1384.000000
610177.312500 6094882.500000 1388.000000
610177.312500 6094882.500000 1392.000000
610177.312500 6094882.500000 1396.000000
610177.312500 6094882.500000 1400.000000
610177.312500 6094882.500000 1404.000000
610177.312500 6094882.500000 1408.000000
610177.312500 6094882.500000 1412.000000
610177.312500 6094882.500000 1416.000000
610176.312500 6094918.500000 1432.000000
610176.312500 6094918.500000 1428.000000
610176.312500 6094918.500000 1424.000000
610176.312500 6094918.500000 1380.000000
610176.312500 6094918.500000 1384.000000
610176.312500 6094918.500000 1388.000000
610176.312500 6094918.500000 1392.000000
610176.312500 6094918.500000 1396.000000
610176.312500 6094918.500000 1400.000000
610176.312500 6094918.500000 1404.000000
610176.312500 6094918.500000 1408.000000
610176.312500 6094918.500000 1412.000000
610176.312500 6094918.500000 1416.000000
610176.312500 6094918.500000 1420.000000
610175.312500 6094954.500000 1436.000000
610175.312500 6094954.500000 1432.000000
610175.312500 6094954.500000 1428.000000
610175.312500 6094954.500000 1424.000000
610175.312500 6094954.500000 1380.000000
610175.312500 6094954.500000 1384.000000
610175.312500 6094954.500000 1388.000000
610175.312500 6094954.500000 1392.000000
610175.312500 6094954.500000 1396.000000
610175.312500 6094954.500000 1400.000000
610175.312500 6094954.500000 1404.000000
610175.312500 6094954.500000 1408.000000
610175.312500 6094954.500000 1412.000000
610175.312500 6094954.500000 1416.000000
610175.312500 6094954.500000 1420.000000
610174.312500 6094990.500000 1436.000000
610174.312500 6094990.500000 1432.000000
610174.312500 6094990.500000 1428.000000
610174.312500 6094990.500000 1384.000000
610174.312500 6094990.500000 1388.000000
610174.312500 6094990.500000 1392.000000
610174.312500 6094990.500000 1396.000000
610174.312500 6094990.500000 1400.000000
610174.312500 6094990.500000 1404.000000
610174.312500 6094990.500000 1408.000000
610174.312500 6094990.500000 1412.000000
610174.312500 6094990.500000 1416.000000
610174.312500 6094990.500000 1420.000000
610174.312500 6094990.500000 1424.000000
610173.312500 6095026.500000 1436.000000
610173.312500 6095026.500000 1432.000000
610173.312500 6095026.500000 1428.000000
610173.312500 6095026.500000 1384.000000
610173.312500 6095026.500000 1388.000000
610173.312500 6095026.500000 1392.000000
610173.312500 6095026.500000 1396.000000
610173.312500 6095026.500000 1400.000000
610173.312500 6095026.500000 1404.000000
610173.312500 6095026.500000 1408.000000
610173.312500 6095026.500000 1412.000000
610173.312500 6095026.500000 1416.000000
610173.312500 6095026.500000 1420.000000
610173.312500 6095026.500000 1424.000000
610172.250000 6095063.000000 1436.000000
610172.250000 6095063.000000 1432.000000
610172.250000 6095063.000000 1428.000000
610172.250000 6095063.000000 1384.000000
610172.250000 6095063.000000 1388.000000
610172.250000 6095063.000000 1392.000000
610172.250000 6095063.000000 1396.000000
610172.250000 6095063.000000 1400.000000
610172.250000 6095063.000000 1404.000000
610172.250000 6095063.000000 1408.000000
610172.250000 6095063.000000 1412.000000
610172.250000 6095063.000000 1416.000000
610172.250000 6095063.000000 1420.000000
610172.250000 6095063.000000 1424.000000
610171.250000 6095099.000000 1440.000000
610171.250000 6095099.000000 1436.000000
610171.250000 6095099.000000 1432.000000
610171.250000 6095099.000000 1428.000000
610171.250000 6095099.000000 1384.000000
610171.250000 6095099.000000 1388.000000
610171.250000 6095099.000000 1392.000000
610171.250000 6095099.000000 1396.000000
610171.250000 6095099.000000 1400.000000
610171.250000 6095099.000000 1404.000000
610171.250000 6095099.000000 1408.000000
610171.250000 6095099.000000 1412.000000
610171.250000 6095099.000000 1416.000000
610171.250000 6095099.000000 1420.000000
610171.250000 6095099.000000 1424.000000
610170.250000 6095135.000000 1440.000000
610170.250000 6095135.000000 1436.000000
610170.250000 6095135.000000 1432.000000
610170.250000 6095135.000000 1388.000000
610170.250000 6095135.000000 1392.000000
610170.250000 6095135.000000 1396.000000
610170.250000 6095135.000000 1400.000000
610170.250000 6095135.000000 1404.000000
610170.250000 6095135.000000 1408.000000
610170.250000 6095135.000000 1412.000000
610170.250000 6095135.000000 1416.000000
610170.250000 6095135.000000 1420.000000
610170.250000 6095135.000000 1424.000000
610170.250000 6095135.000000 1428.000000
610169.250000 6095171.000000 1440.000000
610169.250000 6095171.000000 1436.000000
610169.250000 6095171.000000 1432.000000
610169.250000 6095171.000000 1388.000000
610169.250000 6095171.000000 1392.000000
610169.250000 6095171.000000 1396.000000
610169.250000 6095171.000000 1400.000000
610169.250000 6095171.000000 1404.000000
610169.250000 6095171.000000 1408.000000
610169.250000 6095171.000000 1412.000000
610169.250000 6095171.000000 1416.000000
610169.250000 6095171.000000 1420.000000
610169.250000 6095171.000000 1424.000000
610169.250000 6095171.000000 1428.000000
610168.250000 6095207.000000 1440.000000
610168.250000 6095207.000000 1436.000000
610168.250000 6095207.000000 1432.000000
610168.250000 6095207.000000 1388.000000
610168.250000 6095207.000000 1392.000000
610168.250000 6095207.000000 1396.000000
610168.250000 6095207.000000 1400.000000
610168.250000 6095207.000000 1404.000000
610168.250000 6095207.000000 1408.000000
610168.250000 6095207.000000 1412.000000
610168.250000 6095207.000000 1416.000000
610168.250000 6095207.000000 1420.000000
610168.250000 6095207.000000 1424.000000
610168.250000 6095207.000000 1428.000000
610167.250000 6095243.500000 1440.000000
610167.250000 6095243.500000 1436.000000
610167.250000 6095243.500000 1392.000000
610167.250000 6095243.500000 1396.000000
610167.250000 6095243.500000 1400.000000
610167.250000 6095243.500000 1404.000000
610167.250000 6095243.500000 1408.000000
610167.250000 6095243.500000 1412.000000
610167.250000 6095243.500000 1416.000000
610167.250000 6095243.500000 1420.000000
610167.250000 6095243.500000 1424.000000
610167.250000 6095243.500000 1428.000000
610167.250000 6095243.500000 1432.000000
610166.250000 6095279.500000 1444.000000
610166.250000 6095279.500000 1440.000000
610166.250000 6095279.500000 1436.000000
610166.250000 6095279.500000 1392.000000
610166.250000 6095279.500000 1396.000000
610166.250000 6095279.500000 1400.000000
610166.250000 6095279.500000 1404.000000
610166.250000 6095279.500000 1408.000000
610166.250000 6095279.500000 1412.000000
610166.250000 6095279.500000 1416.000000
610166.250000 6095279.500000 1420.000000
610166.250000 6095279.500000 1424.000000
610166.250000 6095279.500000 1428.000000
610166.250000 6095279.500000 1432.000000
610165.187500 6095315.500000 1444.000000
610165.187500 6095315.500000 1440.000000
610165.187500 6095315.500000 1396.000000
610165.187500 6095315.500000 1400.000000
610165.187500 6095315.500000 1404.000000
610165.187500 6095315.500000 1408.000000
610165.187500 6095315.500000 1412.000000
610165.187500 6095315.500000 1416.000000
610165.187500 6095315.500000 1420.000000
610165.187500 6095315.500000 1424.000000
610165.187500 6095315.500000 1428.000000
610165.187500 6095315.500000 1432.000000
610165.187500 6095315.500000 1436.000000
610164.187500 6095351.500000 1444.000000
610164.187500 6095351.500000 1440.000000
610164.187500 6095351.500000 1396.000000
610164.187500 6095351.500000 1400.000000
610164.187500 6095351.500000 1404.000000
610164.187500 6095351.500000 1408.000000
610164.187500 6095351.500000 1412.000000
610164.187500 6095351.500000 1416.000000
610164.187500 6095351.500000 1420.000000
610164.187500 6095351.500000 1424.000000
610164.187500 6095351.500000 1428.000000
610164.187500 6095351.500000 1432.000000
610164.187500 6095351.500000 1436.000000
610163.187500 6095387.500000 1444.000000
610163.187500 6095387.500000 1440.000000
610163.187500 6095387.500000 1396.000000
610163.187500 6095387.500000 1400.000000
610163.187500 6095387.500000 1404.000000
610163.187500 6095387.500000 1408.000000
610163.187500 6095387.500000 1412.000000
610163.187500 6095387.500000 1416.000000
610163.187500 6095387.500000 1420.000000
610163.187500 6095387.500000 1424.000000
610163.187500 6095387.500000 1428.000000
610163.187500 6095387.500000 1432.000000
610163.187500 6095387.500000 1436.000000
610162.187500 6095424.000000 1444.000000
610162.187500 6095424.000000 1440.000000
610162.187500 6095424.000000 1396.000000
610162.187500 6095424.000000 1400.000000
610162.187500 6095424.000000 1404.000000
610162.187500 6095424.000000 1408.000000
610162.187500 6095424.000000 1412.000000
610162.187500 6095424.000000 1416.000000
610162.187500 6095424.000000 1420.000000
610162.187500 6095424.000000 1424.000000
610162.187500 6095424.000000 1428.000000
610162.187500 6095424.000000 1432.000000
610162.187500 6095424.000000 1436.000000
610161.187500 6095460.000000 1444.000000
610161.187500 6095460.000000 1400.000000
610161.187500 6095460.000000 1404.000000
610161.187500 6095460.000000 1408.000000
610161.187500 6095460.000000 1412.000000
610161.187500 6095460.000000 1416.000000
610161.187500 6095460.000000 1420.000000
610161.187500 6095460.000000 1424.000000
610161.187500 6095460.000000 1428.000000
610161.187500 6095460.000000 1432.000000
610161.187500 6095460.000000 1436.000000
610161.187500 6095460.000000 1440.000000
610160.187500 6095496.000000 1448.000000
610160.187500 6095496.000000 1444.000000
610160.187500 6095496.000000 1400.000000
610160.187500 6095496.000000 1404.000000
610160.187500 6095496.000000 1408.000000
610160.187500 6095496.000000 1412.000000
610160.187500 6095496.000000 1416.000000
610160.187500 6095496.000000 1420.000000
610160.187500 6095496.000000 1424.000000
610160.187500 6095496.000000 1428.000000
610160.187500 6095496.000000 1432.000000
610160.187500 6095496.000000 1436.000000
610160.187500 6095496.000000 1440.000000
610159.187500 6095532.000000 1448.000000
610159.187500 6095532.000000 1444.000000
610159.187500 6095532.000000 1400.000000
610159.187500 6095532.000000 1404.000000
610159.187500 6095532.000000 1408.000000
610159.187500 6095532.000000 1412.000000
610159.187500 6095532.000000 1416.000000
610159.187500 6095532.000000 1420.000000
610159.187500 6095532.000000 1424.000000
610159.187500 6095532.000000 1428.000000
610159.187500 6095532.000000 1432.000000
610159.187500 6095532.000000 1436.000000
610159.187500 6095532.000000 1440.000000
610158.125000 6095568.000000 1448.000000
610158.125000 6095568.000000 1444.000000
610158.125000 6095568.000000 1400.000000
610158.125000 6095568.000000 1404.000000
610158.125000 6095568.000000 1408.000000
610158.125000 6095568.000000 1412.000000
610158.125000 6095568.000000 1416.000000
610158.125000 6095568.000000 1420.000000
610158.125000 6095568.000000 1424.000000
610158.125000 6095568.000000 1428.000000
610158.125000 6095568.000000 1432.000000
610158.125000 6095568.000000 1436.000000
610158.125000 6095568.000000 1440.000000
610157.125000 6095604.000000 1452.000000
610157.125000 6095604.000000 1448.000000
